# .PCD v0.7 - Point Cloud Data
VERSION 0.7
FIELDS x y z
SIZE 4 4 4
TYPE F F F
COUNT 1 1 1
WIDTH 1677
HEIGHT 1
VIEWPOINT 0 0 0 1 0 0 0
POINTS 1677
DATA ascii
-3.333949 -2.867054 5.630960
-0.493018 -0.874477 1.402266
1.283796 -2.655812 -0.665224
-0.238216 -0.810501 1.031537
3.038703 1.655523 -3.834805
-0.007208 -1.735613 0.913468
-3.910318 -1.216799 5.474370
-1.803453 -4.060674 0.803720
-1.144302 -1.636001 2.488931
2.536174 -0.556582 -4.909817
-3.485446 -1.868927 3.665313
3.051062 -2.028273 -3.103487
-0.934387 3.855947 -0.977311
-1.707206 5.055094 1.569359
-5.679059 -1.903585 7.417120
0.128672 3.478420 -1.996552
-0.955856 -1.306401 2.149818
-0.272583 -6.032012 -0.085732
-0.224233 -0.853477 0.892880
4.044025 -1.060104 -4.663068
1.173310 1.204136 -1.321668
-5.049179 4.767101 5.164189
0.480373 1.304189 -0.411618
-3.123968 0.696802 4.690725
-0.234930 -2.887285 1.516071
0.120228 -1.162609 0.594142
-1.477014 4.505714 -0.092750
3.581501 0.382375 -6.125496
-0.197687 1.038930 0.741888
-1.337405 3.853830 -1.131489
-0.225216 -0.475194 0.727648
2.236839 -4.755689 -1.437750
-2.146035 0.316403 3.470795
3.524581 2.181076 -5.293138
0.738100 -1.358054 -0.199222
0.797700 3.205244 -3.243175
1.173103 -1.768474 -0.678706
1.280744 -3.967803 -0.382085
1.691471 3.183204 -2.940177
0.467248 -0.273041 -0.076674
0.341756 -0.206480 0.109970
-0.266967 -2.228771 1.306581
0.865256 3.245332 -2.932733
-2.227491 1.212606 3.413926
0.749705 -0.855549 -0.308216
0.556478 3.267030 -1.596177
-0.460540 0.112597 1.137097
-4.346796 2.639282 5.172315
-1.475302 0.496864 2.494413
0.042075 3.241246 -3.071297
-2.626952 -1.231644 4.411199
-4.546234 4.030236 4.973207
-1.845301 1.146616 2.870232
-2.003653 -1.372308 3.665379
0.333798 0.340940 0.018372
-0.069848 -0.766551 0.634243
-0.040338 -1.637774 0.943045
-1.393611 1.023608 2.244843
3.599813 2.327208 -5.335038
-0.435867 -1.851887 1.539052
-1.649192 -1.081329 3.067048
0.766945 3.326776 -1.281920
-2.397342 2.896940 3.201503
-3.059451 -1.762064 4.721093
-6.093756 -1.044883 4.178740
-0.228429 1.202101 0.576337
-0.543772 0.396578 1.197389
-0.403995 1.606107 0.714493
1.117646 3.919791 -8.246565
-1.120828 -1.761343 2.382796
-1.570169 -3.641051 3.556918
-7.378615 0.652231 7.290076
0.682147 -0.826256 -0.174491
-0.465765 3.881770 -0.848802
-0.588867 -0.229995 1.392511
-3.714291 5.901649 2.621082
-0.844611 -4.591533 0.229690
-1.151076 -3.710128 2.994776
0.536288 3.195013 -1.509154
0.007397 -1.362826 0.834110
-1.545853 -4.007946 0.507925
-6.478148 -0.758641 5.830814
-1.487592 -0.450077 2.688143
0.500800 -1.076323 0.057610
-2.511925 -1.635879 4.415472
0.777850 -0.273637 -0.443618
1.366833 1.404309 -1.615212
-0.276809 -5.198513 -0.343843
3.564523 -4.806921 -3.770649
-0.098351 3.510237 -2.019612
0.983055 -2.120695 -0.277956
0.704966 0.658125 -0.562590
-0.047545 -1.428272 0.881427
0.577502 -2.022901 0.212430
1.856179 -1.626891 -1.618184
-0.565378 0.889443 1.132419
-0.555889 -1.644129 1.679639
1.619501 -3.948501 -0.807467
-0.660363 1.143812 1.160814
-2.441636 0.013228 3.899333
0.152773 0.163810 0.297316
-0.414352 -2.033262 1.593708
-1.580051 5.735293 0.159552
-1.451616 0.452744 2.420933
-0.446327 1.066184 0.923613
2.485685 -3.327303 -3.820937
1.361909 0.606456 -1.441467
2.998321 -1.718392 -5.121857
-0.237789 -0.476662 0.756778
1.147027 -1.785985 -0.597277
-1.036565 -0.153708 2.040493
-0.011401 -5.141723 1.465137
2.987091 -4.985188 -4.171568
0.118659 -3.582264 1.207703
-4.237888 -3.553018 5.079203
0.711901 2.963916 -3.778749
-0.640599 -0.217246 1.449685
3.753233 -0.932067 -4.745102
-4.639016 -0.425783 5.725300
-3.561503 2.828526 4.527826
-1.772897 3.743757 2.146538
-0.169847 -2.082080 1.252568
-1.031471 0.276028 1.947914
0.376239 -1.719429 0.402415
-0.074584 -0.075803 0.640415
-0.683637 -0.134607 1.530728
0.675270 -0.662889 -0.190910
1.206735 2.150895 -7.008115
-4.477388 5.030731 4.747366
-0.680184 -4.107546 1.063136
2.598014 -1.421108 -2.605813
-0.355409 1.784208 0.607321
2.484500 0.468221 -2.880459
1.349615 -0.585056 -1.104886
-1.513545 -0.949265 2.844748
-0.529288 -4.069932 1.576566
-0.474627 0.166051 1.135885
-0.393335 -1.399295 1.371176
0.692576 -1.962620 -0.025197
-1.393950 4.613837 0.561749
-5.164892 0.151292 5.785829
0.458489 -0.571165 0.022558
0.648406 1.750965 -0.689940
-0.637667 -0.276280 1.476074
-3.668455 1.226474 5.162976
1.595224 -2.926826 -1.013021
0.176965 -0.060103 0.284903
-0.736692 -0.794261 1.702399
-0.534520 -4.990201 0.432682
0.989444 -0.845225 -0.592875
-1.251255 1.669990 1.979217
3.578416 -0.861315 -5.150762
3.022235 -1.307875 -5.234261
1.125209 2.516890 -1.502803
1.036496 -1.605019 -0.528099
0.179656 0.608578 0.133528
0.423408 -0.428991 0.028631
-0.632933 -0.406164 1.497451
2.460381 -4.391731 -1.664093
2.811276 -3.522523 -3.575758
0.190802 3.448900 -2.279983
-1.165997 3.312537 1.390979
-0.221575 0.234544 0.789509
-1.591691 -4.057081 0.764557
1.271425 -3.900055 -0.257659
3.589509 -4.435397 -3.827310
-0.603889 -2.604239 1.958508
-1.350207 -0.699028 2.577157
2.098254 0.050364 -2.301733
-1.561747 4.830289 1.287616
0.447042 -1.517920 0.223619
0.612811 3.248299 -2.724802
0.899388 0.693500 -0.819970
-4.587543 5.116549 4.731206
-0.419242 3.486639 -2.118495
0.210068 -0.044362 0.241374
-0.394890 3.727340 -1.355422
0.771863 -0.053880 -0.527758
1.588889 -0.692492 -1.510038
-0.002392 -4.088020 1.144160
-4.412611 1.080386 5.321609
0.918870 -1.045527 -0.419715
0.188302 -0.925997 0.431982
-0.019697 3.662238 -1.390184
-0.064197 0.856808 0.435709
0.964742 3.223765 -2.958294
0.570896 -0.824600 -0.085471
-3.359853 -1.531306 5.011024
-0.477373 3.699238 -1.441917
3.691146 -0.999441 -4.771489
2.109796 1.767329 -6.149665
0.391230 2.998420 -3.637030
3.250494 -4.314345 -4.064090
-5.061689 -0.884290 6.111379
2.575654 -3.781159 -2.068632
-0.079357 -2.175715 1.116564
-0.419556 -1.544834 1.474450
1.045400 -0.860682 -0.700944
-0.290935 -0.447988 0.805931
-0.405114 -3.234490 1.898901
-1.156278 1.538653 1.870001
0.720030 -1.698761 -0.089732
3.191522 1.423746 -3.975184
1.330017 -3.307164 -0.440063
-4.549314 6.273911 4.278676
-0.079892 2.352844 0.171829
1.144860 0.629828 -1.160613
-0.561937 1.956569 0.820826
3.414918 -2.761775 -4.496583
-1.968180 0.386568 3.199599
0.190489 2.938564 -0.349954
0.125059 3.436321 -1.039825
-0.953726 -5.225336 0.905231
-0.646439 -1.089545 1.683847
0.072514 -1.321800 0.707546
-0.305029 -0.489794 0.852976
-0.748238 -0.510340 1.626037
-0.583610 0.304224 1.251204
0.492831 -0.824999 0.029859
-3.307572 -2.010858 3.575305
-0.037468 3.736696 -1.276461
0.232018 -1.833045 0.646284
-0.788422 -1.876222 2.044759
0.837194 -0.115968 -0.542665
-0.539503 0.107770 1.244282
3.161589 -3.402300 -4.423566
2.077857 -2.088434 -1.758437
-5.832298 -0.987865 6.081272
-1.314777 1.904020 1.884664
-0.859690 -0.263043 1.807317
-0.960769 -1.369477 2.183218
-0.867258 0.741726 1.696538
-0.622231 0.727189 1.208437
0.685903 -2.391170 0.132010
-0.353884 -4.961144 0.420010
0.787886 -2.359092 0.008100
0.994624 -2.280909 -0.338315
0.402808 -2.358416 0.540781
3.134025 -2.110492 -4.913716
4.218258 -2.200325 -5.063392
-4.774887 3.057870 5.394639
2.888662 -3.437428 -2.553198
0.949964 0.429250 -0.842517
3.257221 -1.097342 -3.546489
2.651477 -0.781018 -5.057309
1.921994 0.372514 -2.167639
-0.068819 -0.792479 0.648138
0.182377 -0.018759 0.273463
1.321992 -0.293047 -1.163480
-0.974642 3.887708 -0.812307
-3.812882 3.816217 4.557696
1.402704 -4.116435 -0.450083
-7.777896 1.065814 7.443064
-0.273028 -3.882099 1.681560
-0.144138 -1.711107 1.095649
0.082305 3.678332 -1.647421
1.176004 -4.563794 -0.022818
-4.401532 -0.241535 5.384111
-0.418057 -0.086097 1.124517
3.163681 0.819344 -3.847335
-0.932367 0.677100 1.708163
0.643808 1.369992 -0.560812
-1.351550 4.027780 -0.947050
3.013912 -1.855119 -5.095836
1.828748 2.919698 -3.852235
0.703471 3.300683 -2.504390
0.828392 -1.435582 -0.279706
-0.479469 0.111440 1.164056
-3.120860 -1.747813 4.563087
-0.226641 3.728604 -1.243026
-1.481234 1.680204 2.132185
2.868879 -0.341218 -5.023328
2.944369 -4.348261 -4.274404
-4.441175 0.557142 5.375543
-0.357951 1.315841 0.756864
-0.394150 3.036343 0.406498
1.936899 -3.731751 -3.857697
-3.748430 4.161238 4.365314
-0.243242 -0.409184 0.882515
-0.585718 2.083232 0.885654
0.637519 1.014993 -0.544194
-0.680219 4.046325 0.564582
1.005244 -0.405747 -0.752594
0.311979 -1.396178 0.394042
-5.730560 -0.784286 6.288186
-0.328164 0.603693 0.892161
-0.089699 -0.093638 0.661071
1.142178 -2.168586 -5.039117
0.786254 -2.391215 -0.020484
0.125999 -2.818324 1.003732
-0.631814 2.542442 0.828341
0.699328 -0.399462 -0.359056
-2.758736 -1.607332 4.531009
2.224289 -2.941489 -1.743083
-0.151949 3.537699 0.011949
4.181535 -5.652929 -3.867113
-0.500951 -2.120103 1.721924
1.421871 -3.296190 -0.592165
0.661486 3.645564 -1.286686
-0.121306 -0.658936 0.588629
-0.485880 0.210028 1.145533
0.458629 3.095218 -7.236760
-0.279023 -1.916121 1.319781
0.508552 2.194570 -0.597638
1.506578 -0.407159 -1.491441
-0.770032 4.403233 0.390902
-5.169020 -0.339170 5.773141
0.464112 -1.381328 0.201645
-0.195886 -1.307933 1.078308
0.191632 -2.456768 0.828938
0.120349 -0.228748 0.395107
-0.425240 -1.094298 1.347193
1.303288 -3.033505 -0.615606
-0.265859 -3.836993 1.706777
2.461751 2.930290 -3.601595
0.428254 -0.051991 -0.056201
0.952511 -0.632849 -0.633993
-3.760928 0.264605 5.314651
-0.166253 3.984973 -0.541149
0.216556 -1.198161 0.481338
-0.077466 2.514146 0.128266
-0.553383 -0.296400 1.367546
-5.159307 4.094279 5.400449
0.053766 1.910036 0.057894
-0.091179 3.906923 -0.673333
-6.496719 -0.912961 5.735713
0.559039 0.793717 -0.202676
-0.096380 -4.329419 1.380857
1.136965 -2.100694 -0.554142
0.414601 0.430094 -0.130851
-1.549477 0.940330 2.422996
1.423921 -4.074175 -4.466155
1.958651 -1.255841 -1.834558
-3.761347 -2.129029 3.493314
0.804940 -0.201854 -0.546746
0.975442 -0.286829 -0.798038
-0.875029 0.452712 1.677171
-0.034923 3.821813 -1.372928
-0.539448 -5.026191 -0.511676
0.764070 0.700028 -0.661647
-0.605527 3.644420 -1.552138
2.307933 -2.730290 -1.865280
0.167272 -1.541489 0.631974
-0.189595 -1.593250 1.120794
1.411277 0.959119 -6.465948
0.555581 3.392916 -0.981939
1.862440 -1.934098 -1.538528
3.291904 -6.916596 -4.308437
0.766981 2.280387 -0.990273
-1.003553 4.295053 -0.211831
3.033787 -1.053064 -3.268659
-0.637722 0.694447 1.239259
3.526416 -5.909986 -4.025710
-2.010665 -0.122539 3.357708
0.310222 -2.063720 0.628403
3.309247 -1.404106 -4.955165
-0.589003 1.062438 1.090903
2.550805 -0.408132 -4.932389
-1.359375 3.943122 -0.908329
1.183948 -2.693070 -0.496875
3.535826 1.724520 -5.941051
1.107068 -0.107316 -0.930201
-1.036236 0.494550 1.908971
0.792371 -1.442086 -0.243764
2.209253 2.431010 -5.620596
0.733546 -0.397286 -0.396482
0.758737 -1.659793 -0.148961
0.376661 -0.186914 0.036021
-1.040624 3.703038 1.159760
0.789501 -0.173100 -0.521288
2.085717 -1.113830 -2.015761
0.598044 3.485799 -2.275826
3.969559 -0.827266 -4.663574
4.306670 -2.122853 -5.003446
3.588850 -2.521317 -4.349643
-1.089709 -0.310179 2.156471
4.489243 -8.774083 -4.121661
-0.734052 -0.336905 1.616436
0.280117 -2.047014 0.730849
-0.676662 -4.030736 2.076144
3.539464 -3.657435 -4.477625
0.807848 3.402794 -2.267202
-0.170237 3.929271 -0.630834
0.516946 0.930434 -0.373522
-1.029073 1.118176 1.685638
-0.428123 -0.748775 1.288846
0.296131 3.000985 -3.729509
3.899525 -5.355566 -4.099132
0.296493 -3.384344 0.912210
-0.428596 -1.027817 1.336169
2.331609 -3.330332 -3.911138
-1.031147 -5.080212 -0.059276
3.502011 -1.323897 -4.941896
-0.619145 0.622184 1.233616
0.525937 -1.970322 0.247167
0.149258 -1.557665 0.658427
0.827111 3.377051 -2.217327
0.612947 -1.500661 0.015508
-0.305790 -1.853528 1.351495
0.754978 -1.096869 -0.279586
-0.116417 -2.886452 1.391087
-1.155267 0.609051 2.123173
-3.960573 5.362735 1.668743
3.352107 -5.075686 -2.720073
0.161130 -1.561376 0.647629
-2.227745 1.148865 3.342220
1.379663 3.197794 -2.737431
1.304490 -1.581151 -0.869610
-0.644986 1.801485 0.989450
1.728886 -4.303099 -0.883814
0.183834 3.634365 -1.625977
-0.192487 3.755495 -1.266001
-0.251533 -1.820835 1.276217
0.322004 -1.574612 0.411967
-0.847240 3.805874 -1.176600
-4.642492 5.091333 4.808312
-0.196177 -3.934484 1.629576
-0.103332 0.283781 0.599935
-0.194625 -0.594503 0.871423
3.567646 -2.063789 -4.523429
-0.760109 0.009307 1.521991
0.083368 -1.692047 0.777472
-0.892756 -1.633811 2.131970
3.319125 -1.883661 -4.900299
-1.792673 -0.216445 3.026188
-4.219912 -0.013029 5.414370
-3.662556 2.819237 4.628654
0.201012 3.284788 -2.817341
3.669156 -5.008218 -3.690376
2.845132 -1.220749 -3.005662
0.991428 0.497221 -0.925764
-0.907775 1.533179 1.513832
0.367453 -1.432628 0.329046
-1.116689 1.045768 1.827927
-3.350394 6.216805 3.280230
1.111739 3.396865 -1.745789
3.368898 -0.765186 -3.758901
0.257234 0.247335 0.108519
0.907206 -0.098114 -0.662899
0.473105 -1.509058 0.208267
2.393983 -3.894535 -1.771919
-1.103083 0.235086 2.070727
2.735171 -4.228662 -2.186063
-0.590988 0.299546 1.268861
-0.041732 3.877211 -0.988675
-0.469976 -0.206039 1.224787
1.959308 2.657174 -4.799450
2.949901 2.678733 -4.410946
-2.014414 2.699740 2.730625
0.392605 3.567026 -2.115510
0.559414 -0.659122 -0.098247
3.245609 -3.159212 -4.396343
0.598136 -0.487046 -0.199991
0.758075 -0.428803 -0.433997
0.039034 3.491446 -1.944426
1.440517 -3.169748 -0.656635
-2.750674 5.510920 2.637473
-1.133217 0.872947 1.883455
-0.144886 3.303599 -2.617321
-0.687982 -3.905566 2.382082
2.718742 -4.300616 -4.315893
-0.231531 -0.611177 0.970068
0.064559 3.777876 -1.287590
1.228895 0.558774 -1.245237
1.467941 -3.794683 -4.479817
-0.563843 -5.035630 0.699242
-0.253591 -2.798451 1.510232
-0.561732 -0.683899 1.447564
-0.367981 -3.221306 1.852138
-0.011389 -0.669255 0.641004
-1.295651 0.374245 2.252182
2.361521 -3.542356 -3.854991
0.056063 -2.085343 0.898175
0.589548 -0.950956 -0.013244
-0.935082 0.597645 1.733227
0.200687 -0.517280 0.364048
-0.559817 0.953512 1.059982
-1.432334 1.331661 2.186821
3.111698 2.169049 -3.990132
-0.356310 0.560062 0.900478
-0.116134 2.397237 0.211518
1.371276 -3.040421 -0.605263
2.438269 -2.778677 -2.130877
-0.750186 2.596545 1.021477
0.939785 -1.322718 -0.233419
-0.825540 -5.200713 0.834600
0.262402 3.841285 -1.029215
-0.978882 2.181713 1.401201
-1.637487 -5.381509 4.098745
-0.902930 -0.188360 1.858679
-0.083365 -2.445966 1.213050
3.588293 -2.891032 -5.012403
-0.844242 4.221083 -0.136846
-0.606324 0.811255 1.237740
-2.328392 1.246499 3.531744
0.821893 0.959572 -0.769958
-0.451193 3.806062 -1.408311
1.373962 -0.679459 -1.189087
3.549221 -7.154764 -4.015911
-4.239414 4.371316 4.807370
-0.792222 3.491472 -2.027959
-0.123121 1.492788 0.361575
-1.134573 -2.018612 2.553848
-3.869458 5.708629 2.347405
-0.613638 -4.904186 -0.478882
0.348532 -1.886841 0.474427
-0.565456 0.121490 1.279812
0.030027 3.931739 -0.575292
-0.133040 2.914059 0.231153
-0.881345 -0.669738 1.919523
-0.080690 -0.482924 0.590291
4.276670 -6.845262 -3.731113
-0.632127 -2.666701 2.060410
-1.164994 -0.086800 2.231735
3.467452 -4.704976 -3.972589
0.427018 3.464130 -2.461491
-3.814853 -0.933342 5.677940
0.087317 -2.477072 0.955542
-0.649990 -3.253427 2.194860
0.798845 -4.605983 0.292609
1.034777 -0.443197 -0.877368
-0.963597 -0.737824 1.996562
2.385695 2.834490 -3.312517
0.238270 -1.660071 0.552547
-0.409112 -1.239851 1.369731
-0.803069 -0.480932 1.763901
1.344485 -2.282053 -0.811682
-4.777826 6.284766 4.294949
-0.159012 -0.309097 0.805681
3.243565 0.029149 -3.778233
-1.500178 4.077941 -0.845469
-0.705344 -0.010828 1.546561
-0.050516 3.380313 -0.126088
-3.478273 0.166089 5.250083
2.079917 0.189249 -5.484144
0.155158 -1.547093 0.665667
-0.972821 -0.176451 1.955898
-0.794706 4.028985 -0.486732
2.175061 0.615148 -6.187567
1.812310 3.223068 -3.274453
-1.068040 -1.868298 2.416701
0.314601 -0.429888 0.185213
3.503093 1.994583 -4.627819
-3.505557 5.421814 4.054684
2.254019 0.529124 -5.300191
-0.757863 3.576802 -1.764640
0.626258 -0.960366 -0.116331
3.300042 0.840693 -5.849859
0.421211 -0.354795 0.005959
0.108446 -1.982027 0.890882
0.540456 1.360033 -0.471633
-0.417173 -4.689226 0.341465
-0.404011 -3.901901 1.732466
-1.297727 0.502707 2.205093
1.465543 -0.099763 -1.441921
-4.094173 -0.296819 5.512906
0.778524 0.101866 -0.568292
0.172122 0.061032 0.258964
-0.414064 -0.367413 1.176183
3.708499 0.327341 -5.377830
1.790114 3.111929 -3.092376
0.791686 -1.445009 -0.241907
0.816434 1.048116 -0.821468
1.905932 3.086755 -3.293975
-7.316661 0.543571 6.670263
2.635652 -6.877179 -3.785842
-0.982700 4.250009 0.055300
2.087489 -1.185799 -1.998601
0.510454 1.091181 -0.400310
3.618856 -5.245790 -4.285935
2.172362 2.890258 -3.853219
-0.634139 -1.165567 1.655488
4.375896 -6.573913 -3.819159
-0.745996 3.849479 -1.422596
3.233950 -3.864117 -3.611423
-0.549895 -0.730895 1.447706
-0.192861 -1.233986 1.045668
-5.489672 -1.140005 6.167765
0.955826 0.682424 -0.910527
-3.008800 -1.373216 4.720285
-0.348161 -1.631127 1.321582
-1.901034 -0.597909 3.309760
-0.602125 -0.521249 1.484473
1.065654 3.517855 -1.685834
-0.633020 0.354682 1.305218
-1.029381 3.702329 -1.490108
0.343894 3.053654 -0.541965
-0.036512 -1.105451 0.799303
-1.511547 1.136509 2.344047
0.457092 0.551033 -0.224682
0.911247 -0.701627 -0.554763
-1.668574 -0.614463 3.016695
0.440970 -0.808881 0.084644
-4.689540 5.174776 4.019867
-0.291715 -1.437984 1.292468
0.222283 -2.036036 0.737298
0.998151 -0.068703 -0.779443
-0.345739 -0.830856 1.185673
1.029245 -0.046372 -0.820873
0.716922 -0.933774 -0.234143
-0.372861 -1.747882 1.408500
1.501022 3.376676 -2.633626
0.745494 0.169498 -0.512020
0.445361 -4.883762 0.726121
-0.472115 3.848642 -1.017822
0.993160 3.398606 -2.075337
-4.171470 0.458148 5.486165
1.171140 -2.298037 -0.547330
-3.818819 -1.666607 3.409397
-0.815406 -0.604763 1.744117
0.568891 0.762166 -0.220663
1.123456 -0.036999 -0.916090
-0.402692 4.282168 -0.084488
4.154806 1.129245 -5.480453
-0.209636 -1.341244 1.101303
-0.099401 -2.259272 1.215899
1.155115 -1.276767 -0.742298
0.329086 3.453370 -2.291540
-0.724362 -1.287722 1.820807
-1.222616 4.146302 -0.146544
1.770202 0.240131 -1.927516
1.386630 -1.112947 -1.143464
0.200589 3.740669 -1.223774
-3.294926 5.638472 2.373628
-0.294157 -1.082376 1.174533
-1.019791 0.978992 1.707844
1.190523 1.126237 -1.324877
0.302065 0.338851 0.043910
1.717965 -1.542439 -1.485546
-3.524918 1.684424 4.974113
-0.046674 3.755890 -1.104246
1.437943 0.161588 -1.471725
-0.321991 -0.478581 1.084234
-3.845258 4.034107 4.514396
0.052360 3.432027 -2.211827
-0.641244 -0.150331 1.438795
0.843192 3.501695 -1.656644
-5.005043 4.170808 5.177657
1.358497 3.296809 -2.506469
-0.597084 -3.884242 1.970120
3.461775 -6.395358 -4.067944
-3.821590 5.418064 4.187592
0.596286 -3.454626 0.526246
-0.238819 -4.158272 1.514497
0.022519 0.814126 0.329432
0.186564 -2.469726 0.794424
-6.874012 0.793644 7.039912
-0.550670 1.306651 0.968349
-1.159893 1.733574 1.845607
-0.807248 0.367898 1.595015
-3.419967 0.510731 5.159961
-3.832191 -1.546494 3.608310
-0.732185 -4.551155 0.841511
-0.249772 -0.914134 1.074659
1.632285 3.353081 -2.378109
-2.570059 -0.792731 4.291595
2.643466 -0.805501 -2.809402
-0.379790 0.503716 0.936420
-1.702238 5.057657 1.689713
-0.655526 3.771178 -1.326405
-0.135141 0.590657 0.610945
-0.321522 -0.560951 1.115462
-0.302350 -1.857121 1.372393
-3.287890 -2.020409 3.810610
1.068695 3.447405 -1.834723
-0.607941 -1.598637 1.722439
0.831193 -3.410735 0.134680
0.171220 -2.884429 0.972337
1.072321 3.422096 -2.389966
2.158537 2.981279 -3.809224
-1.038995 4.227695 -0.100596
-1.180811 3.963884 -1.288551
-0.182513 -0.592809 0.881588
-3.246936 5.420650 2.351989
-1.389811 0.675801 2.286786
-0.023020 -1.409027 0.846467
0.409018 -1.097751 0.187211
-0.033595 -1.737411 0.946454
0.597498 0.053653 -0.291341
0.836264 3.308042 -2.461747
0.616696 3.514129 -2.123809
1.649686 -0.564662 -1.624806
-0.929216 0.865637 1.591573
-1.398072 3.987108 1.587245
3.829121 -0.787847 -4.629066
-0.521466 -0.750222 1.417707
0.655988 2.487131 -0.910402
-0.464935 4.214259 -0.111876
2.919460 2.436315 -5.420695
-1.393418 4.598754 0.472508
-0.153701 1.735958 0.306066
0.258756 -1.471030 0.488074
0.976174 -2.466873 -0.258850
2.486553 -3.872158 -4.005181
-0.827498 1.763141 1.266533
3.843872 -2.402741 -4.211861
-3.504057 -1.224560 5.301135
-1.225811 1.017919 1.987611
0.204555 -0.018323 0.260796
0.196349 -2.538836 0.786286
0.359963 0.351450 -0.028217
0.074130 -1.574275 0.759053
-0.909415 1.065762 1.547614
-4.650968 4.679996 4.857390
1.124114 -1.531484 -0.674514
0.802477 -1.088557 -0.199522
0.235256 -0.218738 0.240081
-0.258329 -1.526284 1.202404
-0.952562 1.033393 1.591922
-5.749530 -0.898461 6.186278
-0.886452 4.379245 0.464744
-1.128550 1.750843 1.813559
3.143536 -6.107173 -4.299178
-0.950679 -0.856572 2.055161
-0.505523 2.720618 0.610343
1.712519 3.095298 -3.178574
0.914128 -1.517195 -0.131808
0.524831 -0.888054 0.004966
0.602703 -0.952000 -0.096320
0.465477 3.605651 -1.615313
-0.292418 -0.385716 1.023931
0.980422 2.822906 -4.238744
-5.144775 4.447483 4.847682
-1.208489 -0.182285 2.308255
2.822216 -7.052896 -3.341765
-2.534940 -0.438222 4.134333
-1.373736 4.103223 -0.568877
-0.607578 3.742953 -1.324536
-0.627941 2.857435 0.791270
3.361415 -0.668246 -4.949281
0.196640 -4.174531 0.990833
0.191768 -2.588434 0.806306
2.165613 -1.049039 -7.296925
-1.335837 3.843817 -1.195303
-0.759315 -1.991413 2.027136
0.428360 -1.598799 0.299968
0.372666 3.120813 -0.575299
-0.930191 -0.110945 1.877116
-0.126185 -0.895213 0.876770
-0.069913 3.589503 -1.742929
-0.177743 -1.039253 0.993855
0.311398 -4.243048 0.831342
-2.190204 -1.100278 3.858886
1.158470 3.154971 -3.260410
-2.309479 -2.316226 4.336524
-0.134790 -0.592906 0.781039
-4.805123 5.889997 4.432559
-1.260875 4.162659 -0.123444
-6.755007 -0.552617 6.026772
3.151911 2.152662 -4.412924
1.270232 -0.904412 -1.214554
-4.210936 5.995691 4.305387
2.197709 -3.008975 -1.756309
-0.802025 0.764080 1.602273
-0.500909 -0.249621 1.280328
0.881273 -0.424004 -0.587078
3.185904 -0.544832 -3.487310
0.240336 -0.926203 0.385512
-1.102918 2.424157 1.483211
-4.760431 4.963964 4.171975
0.593813 0.655104 -0.252927
0.411066 0.188451 -0.076615
0.992172 -1.856061 -0.421052
0.049669 -2.775374 1.111434
-0.837007 -1.413031 1.999298
-0.763566 4.504587 0.315757
-0.324786 1.447205 0.638844
-0.133363 4.100552 -0.294405
3.327119 -0.606616 -4.423368
3.695316 -2.465147 -4.288268
3.820981 1.047952 -5.486187
0.440298 3.176397 -3.289164
-0.001744 3.164198 -3.079206
-1.204320 -0.869392 2.443702
1.160627 -2.457074 -5.078189
-4.132553 -0.306201 5.652627
-1.446729 -2.152431 3.069014
0.677260 0.595001 -0.511856
-0.512482 0.467453 1.119275
-0.144213 -1.878713 1.183660
0.589928 -1.094440 -0.060947
-3.308199 -2.052827 3.902177
3.180799 2.168113 -4.139622
0.170504 0.651896 0.155977
-0.509592 3.077057 0.590388
1.208287 -0.970433 -0.829731
2.435145 -3.371432 -4.272888
0.444384 -1.168185 0.157130
-5.105230 -1.331432 6.656682
-0.577420 -5.032863 0.421196
1.305561 2.756354 -1.791028
0.780584 -0.781008 -0.365057
0.114021 1.334490 -0.081527
2.431371 -2.940881 -2.002697
-0.200601 -3.559404 1.656665
2.300991 2.851059 -4.006588
-0.051308 -0.918085 0.779532
0.863647 2.047042 -1.065659
-0.129069 0.482929 0.590248
-1.583176 -0.529205 2.822774
-0.408153 0.161920 1.062618
2.286366 -3.331510 -4.041780
-0.381121 3.943102 -0.755046
-2.199391 -6.976958 5.307654
-4.657691 2.595904 5.269540
0.393934 -1.349561 0.270504
0.973792 -0.947644 -0.556173
2.726525 -0.482102 -2.947338
3.510680 -4.342282 -4.245102
-4.016822 0.097435 5.378024
1.830758 -3.539712 -1.129691
0.433429 -1.062909 0.176033
0.651528 3.247843 -2.745108
0.893476 -0.734617 -0.545824
-1.405309 -1.321715 2.793252
0.553190 -0.704565 -0.114164
0.596852 -1.935346 0.154113
-0.517234 -1.774933 1.609900
3.600684 -2.809820 -4.239977
-5.024054 4.578083 5.300476
1.544559 0.737926 -6.217762
-2.904954 -0.314447 4.627484
0.332655 3.437732 -2.357134
2.497035 -2.505628 -2.249142
0.085062 -1.699532 0.773209
0.159413 -2.115020 0.777697
-0.819719 -0.017867 1.701182
0.443839 -0.832459 0.085961
3.369653 0.146646 -3.931559
0.409589 -0.149662 -0.024546
0.492298 0.156235 -0.186152
3.632442 0.337065 -5.569088
2.065138 -3.122057 -1.577291
3.167400 -0.737808 -5.175843
0.114766 3.472050 -0.781190
1.652095 -4.901185 -3.722950
-1.012446 0.735830 1.823314
0.744644 -0.925228 -0.255141
-0.116353 -0.760211 0.619575
0.002281 -0.534184 0.606831
-4.001979 3.523480 4.749045
-0.534231 1.833647 0.818835
1.070892 -2.015868 -0.437439
-3.554087 0.012600 5.355234
4.061042 1.213611 -5.248149
-0.060745 1.379689 0.311324
-3.900635 -3.391430 6.239520
1.382826 3.547165 -2.276045
-0.508936 0.639291 1.127067
2.560708 -3.696910 -3.843563
0.072039 0.179415 0.377046
0.769697 -1.902511 -0.104806
-2.127216 0.864335 3.296436
0.668962 -0.387266 -0.313250
-1.724230 4.806151 1.176216
0.687006 -0.379791 -0.347857
0.985416 0.182069 -0.817740
1.529160 0.701847 -1.676874
-0.405861 -0.399098 1.175357
0.707071 0.051476 -0.448601
0.566843 -1.348536 0.034220
0.636708 -0.166821 -0.292159
-0.157248 0.066519 0.760461
-0.759832 -0.092326 1.548126
0.286600 -1.341261 0.429400
-2.001988 -0.729124 3.477998
0.601716 -1.185845 -0.033718
0.369137 -0.627274 0.155435
-2.562142 -2.853089 4.775157
0.321970 -2.092289 0.660414
-2.257597 0.126622 3.582273
0.339759 -0.787481 0.216753
0.467686 -4.197301 0.824361
3.305878 0.249415 -5.732055
-0.668132 -0.315753 1.533818
1.822716 -0.814358 -1.745242
-0.789316 -3.384314 2.460318
-0.517423 -4.652572 0.370440
-2.267361 -2.074370 4.199841
1.288654 0.301334 -1.257991
0.379523 -1.140543 0.246907
-1.163991 3.715286 -1.578416
2.293130 2.636278 -3.066095
-0.185145 -0.443062 0.671422
-1.895318 -0.369778 3.236752
2.003400 -3.082172 -4.020452
0.647357 3.227515 -3.049358
3.194502 0.057745 -3.726308
0.705563 -0.900862 -0.248674
-1.005202 -4.089395 2.843023
-2.168399 -3.275621 4.275798
-2.603627 1.167613 3.896703
2.769809 -1.480569 -2.806339
0.745118 3.274133 -2.912590
-0.026535 -1.786147 0.941431
3.588082 -2.757522 -4.205008
-4.172445 1.391186 5.211351
-0.076041 1.484460 0.239107
-0.322608 -1.182379 1.215538
-0.224650 -0.401822 0.843704
3.524103 -0.831949 -5.163298
2.084778 -1.481287 -1.924089
-2.355209 -0.693602 3.950716
1.452439 0.156923 -6.481724
1.357555 -4.273200 -0.466641
0.063647 0.482904 0.348813
0.754943 3.408812 -2.109341
0.759472 0.220002 -0.552917
-0.138470 -1.210865 1.001486
0.804592 -0.125392 -0.561745
0.291410 -5.027812 0.896546
0.666231 0.284518 -0.416087
-0.416098 0.280590 1.068419
-0.847075 -5.086833 0.662220
-0.253424 0.837449 1.002327
-0.097527 -1.164415 0.916149
-5.024589 4.773299 3.920602
1.306391 1.720968 -6.684365
-1.807505 -4.550435 1.143680
-0.126812 -1.324932 0.977567
-0.470078 0.894662 1.030931
0.600240 3.559940 -1.495695
-0.680659 1.414730 1.152281
0.271062 1.300946 0.096283
0.718779 -1.304090 -0.188413
-0.116096 0.316366 0.643218
2.526823 1.083164 -5.478802
-0.287287 -1.253471 1.207334
-0.702597 3.793450 -1.231586
-0.187651 -3.785190 1.622635
1.980534 -0.050082 -5.553205
-0.419206 3.346614 0.402702
0.278058 -1.930166 0.569659
1.812584 3.148671 -2.634779
1.310919 2.289943 -1.736367
-0.471540 0.385926 1.082618
0.322073 3.415132 -2.464180
-0.317419 0.643387 0.825808
0.162795 0.218010 0.241405
-0.864417 -0.588363 1.810914
0.985817 -1.010746 -0.680120
-1.394747 -4.051682 0.901354
2.916319 -3.225460 -4.700954
2.766093 -4.739945 -4.289453
0.520163 -1.019596 0.030758
-1.290144 3.633398 1.518872
-5.129668 -1.022737 6.410130
-1.001846 -0.253284 2.012537
-0.099530 -1.317657 0.947855
0.616082 2.816428 -3.900035
-0.302363 1.631132 0.557271
-0.585622 0.735497 1.213586
-1.834867 -3.162102 3.802773
-0.069468 -0.915069 0.732348
-0.466216 0.792130 0.989342
1.346685 -1.258661 -1.019196
1.115727 -4.698495 -0.013549
0.162661 3.323231 -2.513422
-2.076683 -1.291754 3.741384
-1.233675 0.960258 2.013484
-0.157412 -0.727875 0.700658
-0.888333 -0.189986 1.835997
-0.017353 -1.287196 0.820151
-0.321419 3.857322 -0.889228
-2.791960 -1.471702 4.520646
-1.227572 2.544225 1.634267
-3.648490 -1.263757 5.394776
1.167813 3.268876 -2.984003
-0.643412 -0.523057 1.516772
0.795983 -3.656301 0.322123
-0.350048 -3.584420 1.870258
1.555395 1.057642 -6.513582
0.765588 -2.227629 -0.032001
-2.613746 -2.706827 4.808131
0.936066 -1.748643 -5.520422
0.609520 -1.832342 0.187191
2.818394 -1.414297 -2.932651
-0.004359 3.299686 -2.994061
3.326439 2.167172 -6.082083
1.117911 -1.261575 -5.676984
-0.557105 -0.514030 1.407563
-0.962496 -0.353549 1.977561
3.356130 -0.291716 -3.855590
3.644054 -0.209408 -4.848495
0.677607 -1.127799 -0.132823
1.709267 -3.783884 -0.976152
1.258446 -0.975587 -1.166214
1.162019 0.235303 -1.096927
1.262707 0.011441 -6.422570
-2.641857 -0.090418 4.197217
2.253518 -1.255695 -4.649716
-4.518111 -0.846261 6.216883
1.390335 3.314452 -2.055130
-0.138675 -0.616108 0.617924
-4.702997 4.753590 4.871872
2.830845 -4.791795 -4.219649
-5.111958 0.468199 5.712988
-0.624044 3.794618 -1.443715
-8.434295 -3.585140 7.941448
-0.427412 1.878934 0.706636
-1.251013 -0.395103 2.415422
0.441309 -0.919209 0.121372
3.731612 -2.840854 -4.181292
-0.534207 2.906279 0.663491
3.435428 -0.435286 -3.971039
-7.006768 0.669266 7.006992
1.604894 -4.120766 -0.743642
-0.159067 -3.938524 1.627821
0.246362 3.650261 -1.498101
0.599861 -0.863660 -0.098381
0.455238 -2.093750 0.602479
1.123575 3.475803 -1.987631
-1.549008 -0.390523 2.879885
-2.113709 4.228598 2.518672
0.835878 -0.454067 -0.532819
-0.726962 -0.747513 1.698328
0.186146 -3.861964 1.162914
0.132497 -0.184865 0.368248
-0.094760 -0.027004 0.666379
-0.896525 3.808695 -1.177583
-1.260633 4.374416 0.003502
0.411168 -0.568398 0.081122
1.876738 -1.103461 -4.915964
2.085534 2.970371 -3.538754
0.751612 3.018512 -1.093186
0.653223 0.070155 -0.333641
-1.614793 -1.239429 3.022644
0.055429 -1.583325 0.787142
-0.386631 -0.292128 1.134804
-1.474234 -0.072910 2.685927
-0.002163 -0.010396 0.525743
3.517871 0.539288 -5.639550
-0.608357 3.619374 -1.732857
-3.676819 3.601693 4.564103
-0.132282 1.370307 0.421448
-4.011702 0.866772 5.436688
0.689384 -2.464382 0.100131
0.773526 -0.877215 -0.358682
-0.415476 -3.795856 1.936619
0.611968 0.196836 -0.350523
-1.540017 -0.225509 3.008327
1.392374 -1.061077 -1.154001
1.637841 1.587403 -2.052417
3.099811 2.091926 -6.347235
-0.260281 -0.508827 0.766060
3.964239 -0.777987 -4.941704
0.348189 -0.866820 0.219121
1.893174 -3.440295 -4.103263
0.564336 -1.953422 0.224775
-1.670179 -4.091047 0.903111
4.049345 1.848569 -5.488348
-0.305827 -1.907490 1.345401
0.611229 3.602852 -1.815969
0.753566 -1.213313 -0.243752
0.438896 3.755545 -1.189683
-0.782896 -4.848172 -0.178431
0.673448 -0.585731 -0.251575
1.157680 3.266587 -2.990616
1.645447 2.227700 -6.717032
0.832366 -3.458431 0.222528
0.095708 0.535822 0.276350
-3.453891 2.654898 4.668387
-2.184844 0.512768 3.469420
0.570898 2.437080 -0.742697
-1.169867 -0.058996 2.232630
0.970212 3.340869 -2.381156
0.720238 -0.814975 -0.279296
2.471530 -3.355558 -4.034080
3.343337 1.448122 -5.950655
1.320214 -0.355593 -1.139338
1.822330 -0.408199 -1.865468
-5.325122 -1.048313 6.332534
-0.940005 3.830952 -1.050140
3.499858 0.547558 -5.642203
1.117759 -3.407164 -0.247152
-0.196899 0.616070 0.693361
2.025566 -1.566589 -1.863362
1.719132 -4.279067 -0.877983
2.070409 2.870628 -4.005614
-0.298842 0.696326 0.813019
-2.022848 2.526650 2.755556
-0.401707 3.916498 -1.088587
0.179225 -1.693351 0.629216
-1.205859 1.070750 1.962605
-0.302453 0.232363 0.889348
0.808635 -1.011641 -0.369525
0.475803 3.492366 -2.286438
2.927332 -4.465849 -4.371922
3.942398 0.958828 -5.293254
-1.070687 -0.140008 2.093740
-1.079602 -4.641907 0.397207
0.595302 -2.567034 0.384814
1.279612 2.316565 -1.646896
1.656047 0.531229 -1.876044
3.151323 -1.585459 -5.089530
0.148627 -4.259390 1.024505
-0.796562 0.599336 1.534559
-0.204680 -4.873090 0.348371
0.190808 0.015903 0.266817
0.196789 -0.996719 0.470371
-0.743785 -1.730901 1.937833
1.988351 -5.175896 -3.497640
-6.652862 -2.030195 6.503560
-1.094505 -0.448993 2.194170
0.243474 -3.606207 1.051706
0.544909 -0.682626 -0.119474
0.554519 3.274101 -2.622035
-0.927844 0.811625 1.624891
0.185490 3.458774 -0.858776
1.732000 3.034641 -3.789259
0.671753 3.318867 -2.840264
0.643248 -0.976691 -0.114040
-0.348942 1.660064 0.627347
3.606398 1.123349 -6.017628
1.514290 -2.827454 -0.955514
0.886942 3.135186 -1.284949
0.860645 -0.390702 -0.552617
-0.219483 -0.994295 1.026652
-5.836997 -2.271291 7.761662
-0.596215 3.890708 -0.991297
1.194563 2.261659 -7.016325
3.456293 -3.021558 -3.367942
-0.429518 0.604018 0.983140
-0.362968 0.934361 0.807142
-1.065658 0.525218 1.948084
-1.428244 0.321695 2.428938
-0.451069 0.123410 1.105125
-0.731503 -2.696629 2.167021
1.836756 3.158933 -3.419784
-1.579591 2.480942 2.168181
3.660736 -0.063402 -5.053400
1.099645 -1.952294 -0.499429
-4.099678 5.711275 2.173887
0.469991 -3.720906 0.770937
1.926967 3.140844 -2.971652
0.079007 -2.126787 0.863424
-1.224624 -4.176498 3.197462
0.499193 -1.501021 0.115402
1.791306 -6.867738 -3.863129
0.085227 0.087280 0.401341
-5.909969 -2.342427 5.681170
-5.972136 -1.273988 5.782300
0.764208 -0.752712 -0.369536
-3.069948 1.915605 4.329746
0.272384 3.510457 -0.723638
1.661737 0.091511 -6.293000
1.052814 2.956185 -1.503006
-0.165989 -1.185012 1.003958
3.269099 -4.732895 -4.030676
1.071787 0.652884 -1.045989
1.152398 2.252421 -7.036630
0.912103 -1.268402 -0.446606
-0.246742 3.897784 -1.393344
-2.341935 3.550658 2.976124
-0.211559 -0.582983 0.918072
0.540935 -3.789670 0.684258
0.483163 -2.114783 0.358210
-0.073510 -1.196916 0.880471
1.016158 3.432382 -2.326740
1.357648 1.376562 -6.713667
-0.416273 -2.096537 1.555166
3.349697 -0.930117 -5.055512
2.883417 -1.518909 -5.156372
-4.313626 0.722594 5.467762
-0.731481 3.670120 -1.803585
0.249324 -2.065800 0.672513
0.075008 0.289538 0.334933
-0.956443 -0.719084 2.041978
-1.745626 -0.552788 3.041677
2.874949 2.729978 -4.252246
2.158219 2.767897 -4.294835
-0.863188 -0.188538 1.796375
3.419309 -1.303802 -5.021502
-0.916616 4.026492 -0.688753
-1.138627 4.075376 1.215270
0.125869 3.413955 -2.214527
0.478426 -1.051859 0.073310
0.833872 -3.340095 0.102066
-0.468529 0.978412 0.965587
2.759744 -2.186630 -2.659999
0.765631 -0.262789 -0.459828
0.845836 -0.653228 -0.486948
0.263759 3.360412 -2.774749
-0.352684 4.045859 -0.454177
0.695854 2.291210 -0.889268
-0.660260 -1.219803 1.696053
0.785817 -0.876785 -0.368554
2.180425 -2.440440 -4.269349
2.278634 -2.036223 -2.092345
-0.062589 -1.348830 0.896827
-3.323277 1.637017 4.746995
-0.033856 -1.215060 0.831617
0.659252 -0.996699 -0.161983
1.218542 -1.689980 -5.298922
1.837797 0.051150 -6.049491
-1.207261 4.389195 0.053906
-2.936706 6.127815 2.715600
0.486135 3.577041 -1.904933
0.359304 3.478339 -0.881474
3.347879 -4.787416 -3.927979
2.903467 -0.311131 -4.650794
-3.857817 1.107270 5.247359
4.094215 1.178049 -5.142035
3.959181 0.243433 -5.100919
1.096285 -0.561899 -0.834658
0.423635 -1.889022 0.360600
2.627144 2.303625 -3.441350
0.150277 0.896811 0.123693
2.780362 2.305864 -5.788603
2.409485 2.976349 -3.736658
-1.708506 -3.311740 3.644735
0.728992 3.591297 -1.836752
-0.951792 -2.760366 2.517091
0.817650 -0.723720 -0.434187
-6.168520 -0.838284 6.065547
3.474835 -6.485454 -2.953887
0.590844 -1.198972 -0.037645
-1.002570 1.956640 1.461535
-0.140409 0.055415 0.713903
0.173535 -1.995193 0.820904
0.722375 -3.548571 0.373631
3.137057 -4.581661 -4.165905
-0.274254 -1.831316 1.314814
3.163246 -3.172313 -4.579344
0.278856 -1.439736 0.447806
-0.126754 1.634650 0.313482
-5.303469 -1.054937 6.416527
0.539418 -0.625890 -0.064416
-7.971756 0.722652 6.311754
0.973645 -1.162469 -0.531501
1.865487 -1.321182 -4.724249
3.347117 -2.794288 -4.451920
0.675238 -0.863790 -0.221809
-0.437845 0.187387 1.083904
2.994486 -4.751308 -4.121966
-5.911959 -0.395968 6.378493
-1.547591 0.082638 2.599519
-0.900580 2.028253 1.253809
0.213061 -1.011446 0.463979
0.691697 -0.243253 -0.345240
0.356494 -2.034142 0.541253
-0.607921 -0.500592 1.470369
2.353071 -0.715261 -6.350597
1.290633 0.554388 -1.348277
2.439368 2.672145 -4.762755
-0.024921 -1.134091 0.796124
-0.762842 2.702811 0.968660
-0.336656 -0.056843 1.010649
2.452573 -0.534632 -4.882209
-0.257822 -0.128222 0.908693
-3.600412 2.459340 4.925642
-2.686614 0.139574 4.207313
-3.608772 1.817924 4.989812
-0.416014 0.687088 0.947196
-1.141947 0.548858 1.993982
0.474538 -0.085747 -0.113254
-1.849627 4.206017 -0.587128
-3.355672 -1.386099 5.115668
3.859527 -2.658818 -3.984687
1.813249 -1.423292 -4.723701
2.718118 -1.125169 -2.843302
-0.479833 -4.556792 0.230068
2.690843 -3.015239 -4.679475
0.690940 3.638373 -1.324885
-0.148964 -4.509049 0.157972
3.304044 0.644589 -3.965386
0.568634 -1.060655 -0.024436
-1.089292 -0.425052 2.177929
-1.109474 1.126715 1.837963
-3.742214 -1.070467 5.554699
-1.490656 0.103622 2.540912
-0.505810 4.366516 0.037575
-0.235767 3.598761 -1.718554
-1.218026 4.324636 -0.000957
-0.539403 -0.439307 1.378485
-0.251477 0.019490 0.860176
-4.817215 5.451879 4.496856
0.896197 -0.909808 -0.403321
-1.011393 0.747977 1.817930
0.046734 -1.518119 0.786155
-2.015239 1.190610 3.093572
-0.481790 0.770576 1.021142
-0.505087 -2.617755 1.861006
3.444739 -3.218318 -4.217268
0.511262 -0.617254 -0.028757
-0.200885 -3.712106 1.621078
-6.665441 -0.860388 5.591862
0.622013 -1.005211 -0.119400
-0.235273 -0.564101 0.978348
0.589223 3.462731 -2.015204
-0.757602 1.052563 1.321146
1.769938 0.576945 -6.567129
-0.658686 -0.219583 1.502249
-0.306684 1.658684 0.595072
0.389013 3.486925 -2.289076
-1.074630 1.323896 1.634056
0.660996 -0.322957 -0.317636
-0.317161 3.659741 -1.475190
0.727018 -4.477973 0.436566
-0.598043 -5.044425 -0.227262
-0.027971 -0.099504 0.578586
2.209730 -0.238194 -5.937638
3.223512 -0.532254 -4.195843
-0.976529 4.268154 0.005543
-4.761990 4.774514 4.069610
-0.055472 0.053843 0.589535
-0.218420 -0.086798 0.844682
-3.785719 -0.303797 5.552705
0.803305 -0.980540 -0.360443
-1.041462 -4.752710 0.483230
-0.854835 -5.043889 0.610477
-1.452679 -4.796716 3.640007
1.235420 0.508019 -1.262692
-1.431784 0.962893 2.308971
2.122844 -2.062926 -1.872701
-1.117430 -4.681563 0.222363
0.444045 -1.454350 0.210313
0.170015 3.877367 -0.699332
-0.509924 -1.593351 1.643476
-0.385829 -1.324101 1.351506
3.056662 -0.221478 -5.505817
3.830859 0.587163 -5.319170
0.386055 -1.519322 0.317457
3.619239 0.079837 -5.335020
-1.071824 -0.304904 2.132096
-2.902286 1.531094 4.221648
0.393313 -3.156793 0.710549
-0.155598 -1.638090 1.081285
-2.649992 3.074939 3.512810
1.859924 -4.094520 -3.798902
0.184949 -3.702112 1.149204
-0.846426 0.683424 1.586910
-1.197182 -0.736182 2.346757
0.534818 -1.119185 0.031732
-0.183692 -1.712600 1.164299
-0.528041 -1.015694 1.481279
-1.138843 -1.679044 2.515122
1.812900 -4.692477 -3.723140
-0.531162 -0.460742 1.360960
0.913212 -1.392406 -0.181168
0.924618 3.212692 -3.158396
-0.791040 0.674870 1.519747
1.846207 3.174560 -2.979491
-0.226343 -1.252396 1.097845
3.479438 -1.621644 -4.870777
0.483313 1.812350 -0.508832
0.613722 -2.699905 0.272064
-0.761288 -0.863891 1.640571
0.365595 -2.710759 0.660514
-4.889118 -0.912948 6.362543
3.029255 -0.500953 -3.324264
-0.444684 -4.455003 0.094164
1.573932 -3.056570 -0.907916
0.491393 0.157418 -0.190354
0.623621 -1.471560 -0.010583
-0.512275 -1.684675 1.607584
-0.798959 0.357769 1.584021
3.098156 -3.557919 -3.406497
0.723386 3.145729 -3.416473
-0.222534 3.457499 -2.175349
1.756833 3.186479 -3.188030
-0.571313 1.753590 0.896574
-1.344376 1.283534 2.076329
0.964771 0.925292 -0.985379
2.525659 -0.781547 -2.656324
-0.813462 -1.076784 1.876214
2.404911 2.462890 -5.431033
3.499057 -3.245625 -4.146316
1.009571 -0.297460 -0.848379
0.386976 -1.302873 0.259377
-5.218347 -0.098968 5.712210
-4.073258 1.148915 5.250319
0.797325 0.312319 -0.599228
2.897890 -0.426311 -4.593706
-0.608264 -1.209849 1.634109
2.439569 -2.282227 -4.569695
-2.761072 -1.072952 4.629616
-0.940699 -1.159178 2.069756
-3.110519 -1.640357 4.826580
2.646020 0.073961 -2.985711
0.447397 -0.919541 0.104038
-4.117645 5.929457 2.449735
0.462504 -2.166171 0.387511
0.795538 -1.122023 -0.332636
-4.509663 2.651730 5.226340
3.212809 -2.855844 -4.511268
2.844340 -3.251046 -3.561543
2.537144 -2.974449 -2.151424
-0.320245 -3.900699 1.657284
1.641917 -4.009609 -4.342031
1.127117 0.602470 -1.131417
0.779801 1.759584 -0.887095
-0.713601 -1.177318 1.737831
-0.444348 -1.928405 1.566204
-0.894432 -3.241308 2.533436
-0.122478 -0.198972 0.732104
0.044199 -0.158217 0.525620
-5.662141 -1.851687 7.370227
1.008900 3.132680 -3.342149
0.089344 3.650418 -1.498991
-0.871085 0.952593 1.497991
-3.727176 0.318743 5.385129
-2.448389 -2.835874 4.627710
-0.298447 -1.075960 1.177454
-0.215715 -2.041661 1.243607
-0.232328 1.908005 0.369318
1.371120 2.750683 -4.543948
-0.156399 -4.447072 1.475018
-0.439348 0.519387 1.039016
1.095117 3.164531 -2.924051
-6.325041 -1.054175 5.729584
-0.865185 -0.688271 1.898818
-1.343488 -1.132661 2.642838
0.218772 -0.904801 0.397642
-0.283676 1.987200 0.462582
-1.013810 2.664593 1.336765
-3.804630 2.084057 4.966392
-1.153576 -1.121439 2.435464
-0.283194 -0.065636 0.925278
-0.471815 -0.272649 1.245338
1.136237 3.363390 -1.692597
-0.101309 -1.037187 0.870304
3.420639 -3.261189 -4.199075
-0.015686 3.939575 -0.369231
-1.725531 1.707725 2.539905
0.260937 -3.389117 0.963458
-5.521498 -1.481446 6.726577
0.213113 -0.966612 0.450140
1.010372 -0.906600 -0.523023
-0.683940 3.874834 -0.975480
-0.489186 -2.043092 1.693136
0.699006 -1.051617 -0.164506
3.847068 -1.530185 -4.614428
-0.429577 3.785527 -1.087367
1.893401 -2.934442 -1.405833
0.130674 1.202123 0.112648
1.712132 0.005737 -1.796106
1.268138 3.374421 -2.649105
0.843221 -0.054392 -0.630147
3.553386 -1.311841 -4.987799
-0.385665 -1.899688 1.452763
1.184736 -0.842778 -0.839679
-0.622996 -4.737770 0.113760
3.847115 -2.006379 -4.340571
0.147732 -1.314734 0.604964
-1.068549 0.882427 1.820800
0.033831 -0.682753 0.599916
0.500088 3.642364 -1.359619
-4.364439 0.163495 5.334009
0.766789 -1.687981 -0.135509
-0.306953 0.452450 0.868330
-0.124074 2.959025 0.268841
0.233689 -1.568807 0.576575
2.664933 -0.582980 -4.842800
3.998007 1.373114 -5.009248
1.453457 0.626020 -1.550786
-0.243723 -0.874928 0.858994
0.031118 -0.171580 0.532949
-3.751423 1.974251 4.996668
0.343601 1.239486 -0.198245
1.153664 -0.801500 -0.773033
0.897324 -0.708443 -0.363511
-0.418363 0.723281 0.956362
-0.097287 -1.389662 0.958297
0.215494 -1.419181 0.538450
0.733801 0.741944 -0.621874
-0.257842 -1.885898 1.298567
-0.483377 -2.330208 1.735996
1.283698 -1.336298 -0.912733
0.526090 -3.344877 0.573787
-0.726312 -0.236878 1.590150
3.227074 -3.170605 -4.465285
1.236246 0.514139 -1.265783
0.395348 -0.040142 -0.015811
0.495230 3.478512 -2.348146
0.817089 -1.294773 -0.318195
0.307812 -1.560650 0.446532
-1.087047 -1.528373 2.257897
2.045464 3.066786 -3.136141
3.577466 -5.539501 -4.182906
1.560721 -3.733160 -4.409931
-0.621153 3.624808 -1.930821
1.998701 -2.065836 -1.709653
-0.120610 -0.437792 0.703315
-1.196006 2.366462 1.604393
-0.821628 3.671612 -1.713597
1.193322 1.114523 -1.347246
2.117809 -2.835232 -4.162286
-0.181827 1.549930 0.395476
-0.893296 3.870793 -1.130794
2.104092 -0.202636 -5.473966
-0.757776 0.363822 1.524837
-0.591818 -5.093200 0.638703
-1.399085 -3.218908 3.234926
3.778720 -2.842263 -4.084871
0.353300 2.328000 -0.380628
0.495568 -0.835017 0.047263
3.059438 -6.551122 -3.484543
1.845814 3.136736 -2.947982
-3.755363 0.788550 5.250449
-0.425569 0.084534 1.037280
0.877961 3.356963 -2.571376
-0.391478 -1.993053 1.444474
0.079196 -1.339527 0.694270
-0.260850 3.615752 -1.574659
-4.657670 1.424175 5.232574
-5.365979 -1.084704 6.151299
-1.264953 -0.931430 2.491456
1.420645 1.612294 -1.660481
3.220140 1.722784 -6.358444
-4.140524 5.199729 4.433862
0.823794 1.650396 -0.923715
1.090914 3.417222 -2.430603
-0.375220 -1.493762 1.452326
-0.550105 3.092416 0.679740
3.215005 -2.762758 -4.564155
-3.845250 -1.647519 3.563411
-6.777681 -0.082519 6.437849
0.830862 -2.541075 -0.031882
-0.734477 1.708423 1.144522
-1.523121 0.921441 2.390692
-0.142483 -1.702847 1.069705
0.929288 -0.669192 -5.604266
2.892337 2.264190 -6.053997
-0.495815 0.655969 1.064250
-3.667568 4.864553 4.291957
0.808041 -1.896366 -0.058258
0.002505 1.231948 0.245448
1.762971 2.583706 -5.142969
-0.704537 -3.627521 2.173468
-0.277260 0.369435 0.831591
-0.084643 -1.091920 0.864371
3.964782 1.198570 -5.033919
1.113951 3.139072 -3.070633
-0.423945 -1.438643 1.424825
0.363500 0.652751 -0.107722
-2.968087 5.865561 2.953376
-0.308472 0.937913 0.739430
-0.652808 0.672226 1.263952
3.625494 -4.519742 -4.190222
-0.574456 2.369544 0.797060
0.877779 -1.462687 -0.107362
0.157418 3.900227 -1.363112
-0.333436 -1.036793 1.251971
-4.422453 2.458383 5.206007
-2.908682 -1.272249 4.734850
-0.772434 0.070080 1.610669
-3.145856 5.844118 3.463794
-0.028812 -1.424719 0.857687
-2.193992 -1.713639 3.990168
0.708108 -1.865762 -0.015011
3.424510 -0.421443 -3.882992
1.032386 3.879191 -8.632712
-0.085713 -1.996104 1.092263
-0.292326 -0.762528 0.864816
1.725656 -3.546994 -4.080489
0.469980 -1.170110 0.117016
1.120505 -1.755867 -0.610198
-1.043311 -3.495188 2.806735
0.451304 -5.374824 0.730689
-1.428995 -0.627224 2.657967
3.830546 1.137491 -5.484610
2.091685 3.071438 -3.442511
0.729187 -1.620903 -0.095831
0.420344 0.324397 -0.113191
0.302901 -4.933698 0.833972
-0.306309 -0.141421 0.981205
3.694878 -1.082428 -4.120967
1.171661 -0.787682 -0.805732
1.822613 2.352845 -6.620153
2.856317 2.433604 -5.495192
-0.798161 -0.517184 1.702336
0.914552 -0.304234 -0.672844
-4.166385 -0.914752 5.850551
-0.397706 1.014246 0.830734
0.104334 -1.834939 0.778131
1.363929 0.799365 -1.508018
3.005923 -3.669475 -3.706751
-0.951206 0.136261 1.859319
0.169871 -0.074790 0.289983
0.417817 0.925091 -0.245293
2.826844 -4.421986 -4.306361
1.880683 -1.993197 -1.539737
1.902931 2.920367 -3.835013
0.402309 3.187557 -3.297544
-0.728483 2.887185 0.898417
0.423384 -0.656564 0.070702
2.495087 -3.913344 -4.022628
0.117945 -1.771098 0.749108
0.162982 -1.372978 0.578004
3.075792 2.403651 -4.602954
1.132813 -0.628055 -0.870669
0.522509 3.366122 -1.509926
-0.970399 -0.231474 1.962590
-1.649228 1.984110 2.382268
3.503691 1.339302 -4.399491
1.278229 -4.673635 -0.181472
-0.719688 0.868556 1.347950
-0.445637 -0.950171 1.340507
-0.143494 -1.629140 1.063640
0.298386 3.503680 -2.360971
0.557155 -1.028051 -0.029429
-0.043735 -1.999822 1.078788
1.175479 -1.977880 -5.468449
2.983378 2.241233 -4.731842
0.264392 -1.872299 0.570154
1.106879 3.317774 -2.376115
3.647778 -5.285552 -3.452466
1.346671 -3.047982 -0.674113
-0.107415 4.022411 -0.283657
0.732461 -0.821275 -0.325491
0.048379 -1.859777 0.841238
-3.447551 -1.893811 3.696615
-0.620736 1.122690 1.103850
-2.171227 2.753311 2.900908
-4.163541 -0.195344 5.450853
2.319809 2.897073 -3.683662
1.543255 -4.678168 -4.166587
3.016362 -1.529181 -5.203427
-0.554228 -2.091323 1.753709
0.939290 -2.738849 -0.142276
3.255014 -3.034791 -3.125937
0.897075 3.257036 -2.629402
0.348308 3.730119 -0.846986
-0.611499 -0.212749 1.432001
-1.952865 0.352623 3.165276
0.005860 -1.285508 0.786586
0.889000 3.350621 -1.332019
-2.083397 -0.071443 3.431756
-0.353915 0.505310 0.907227
-0.550095 0.557586 1.162635
3.706897 -2.627479 -4.165202
-0.656417 4.411592 0.177845
0.709212 0.072474 -0.442238
2.364086 -3.363219 -4.137693
-7.457747 -2.465369 6.542909
2.532672 2.974524 -4.058006
0.600161 1.058889 -0.506407
0.993659 -0.180255 -0.782280
0.347972 3.318528 -2.416947
-0.876399 4.248083 0.796369
-5.304140 4.896373 4.025430
0.510740 0.273021 -0.231072
-3.749710 0.855423 5.386560
0.070367 -1.710901 0.844829
-0.199794 0.556679 0.689721
-0.979451 3.832565 -1.159194
-1.159406 -0.260082 2.251904
-0.646622 1.497357 1.095520
-1.828263 1.725306 2.690145
-1.122154 0.208030 2.104203
-4.493335 6.479107 4.255359
-0.876823 4.275053 -0.170836
0.138682 1.010350 0.104557
-1.575243 -2.272398 3.269504
1.708370 3.152467 -3.421419
-0.129626 -1.626590 1.052918
0.628503 -0.486053 -0.239968
-1.348220 1.598245 2.030589
1.129962 2.185604 -1.447877
0.793496 -0.879439 -0.367010
0.722883 -1.633106 -0.110360
0.221946 0.042115 0.206558
0.248969 0.903279 -0.021152
3.185257 2.019222 -6.359585
-0.641968 0.094727 1.382391
1.214018 -1.807754 -0.719270
0.437719 -3.476737 0.726254
3.338858 -1.474738 -4.852197
-0.369083 -0.667691 1.186125
1.297068 -3.220835 -0.571558
-0.162214 -3.920632 1.426746
-0.993110 -0.253244 1.998546
0.634438 0.578322 -0.443160
3.747862 -6.120566 -3.427515
-1.140578 4.145625 -0.321579
0.614129 -1.387390 0.007432
